99.767368421,0.03107,3.85694
99.5554385965,0.03143,2.68467
98.6091228071,0.00976,2.18828
98.0203508772,0.00903,2.75206
96.907368421,0.02800,4.43941
97.2171929824,0.02505,8.71428
97.0807017545,0.00300,38.86686
96.658245614,0.00237,57.21669
96.7771929824,0.00213,77.46577
96.4284210527,0.00401,78.63870
95.3431578948,0.02230,79.79722
97.0133333334,0.02877,80.52367
97.8270175438,0.01080,65.00236
98.1561403509,0.01307,50.00093
99.4070175438,0.01802,26.02889
99.6392982456,0.00809,8.40163
99.7031578947,0.00118,2.25246
99.6796491227,0.00529,4.14931
98.8024561404,0.01263,5.42579
98.4515789474,0.02911,2.94475
97.6171929824,0.03727,3.54976
96.5687719299,0.03020,7.76339
96.9396491228,0.03877,37.36806
96.5017543859,0.02334,54.56497
96.7698245614,0.00476,70.40587
96.8484210527,0.00447,78.16459
96.4108771929,0.00425,79.74812
97.0919298246,0.00302,80.47376
97.9319298246,0.00056,66.86144
99.0435087719,0.00749,55.20882
99.5098245614,0.02121,27.93467
99.5561403508,0.01672,13.19452
99.3494736842,0.03846,5.12155
99.6108771931,0.04223,3.35588
98.8228070175,0.00669,3.84573
98.3912280702,0.00466,2.16399
97.6087719298,0.00384,2.86508
97.1996491228,0.00268,8.89843
97.173508772,0.00353,34.86060
96.8822807018,0.00391,52.21617
96.7810526315,0.00333,75.42507
97.0073684211,0.00246,78.49819
95.9757894737,0.00208,82.09452
97.1136842107,0.00229,79.23024
97.5449122808,0.00039,60.76031
98.2547368422,0.00034,53.53682
99.3533333333,0.00130,28.89010
99.6235087719,0.00162,17.18464
99.6663157895,0.00505,5.67533
99.6178947368,0.00766,5.99491
98.3656140351,0.00515,7.50478
98.5796491228,0.00273,5.39470
97.0480701754,0.02418,4.97517
96.4280701754,0.02565,7.16264
97.0828070175,0.01679,32.83925
96.8452631579,0.01399,47.29277
96.9585964913,0.01817,71.16848
96.9403508772,0.03563,74.80044
95.9796491228,0.05162,78.11175
96.6340350877,0.03942,77.78629
97.3112280703,0.00732,63.92137
98.4642105263,0.00502,56.19961
99.4143859649,0.02863,26.74813
99.4168421053,0.04986,18.71332
99.5866666667,0.06991,7.92899
99.5849122807,0.02512,7.22843
99.0347368421,0.00507,7.78914
98.5561403508,0.00461,4.11181
97.7792982456,0.00143,2.56618
97.2898245615,0.00210,13.14648
97.3884210526,0.00495,35.03687
97.2687719298,0.00440,47.39019
96.9964912281,0.02541,68.53598
96.9543859649,0.02466,73.85702
96.3038596491,0.00172,80.55850
96.6364912281,0.00251,79.13416
97.4389473684,0.00273,64.22374
98.1884210527,0.00249,53.49572
99.1045614035,0.00800,29.48177
99.4368421053,0.02708,16.59190
99.5989473684,0.03824,4.56924
99.5245614036,0.03628,6.79168
98.7670175439,0.03090,7.86387
98.0740350877,0.02077,7.47823
97.4315789474,0.02812,7.35920
96.7140350877,0.01969,10.00745
96.7414035088,0.00145,34.31296
96.4133333334,0.00614,46.98199
96.6298245614,0.02341,69.45431
96.6196491228,0.00275,72.29618
96.5217543859,0.00345,78.63029
96.1557894737,0.00338,76.24653
97.3329824562,0.00312,65.10191
98.378245614,0.01070,51.90258
99.0652631579,0.02785,30.37088
99.4280701754,0.02005,18.50435
99.5810526316,0.00249,6.12528
99.5038596492,0.01998,5.10687
99.1333333334,0.04996,7.04215
98.2922807018,0.03954,7.44327
97.5628070176,0.02039,6.57951
97.2673684211,0.02312,9.26379
96.7266666666,0.01913,33.93332
96.4217543859,0.01280,51.24006
96.6950877192,0.00415,66.31301
97.1659649123,0.00411,69.81006
96.8210526316,0.00324,82.40437
96.4775438596,0.00201,79.29176
96.9277192983,0.01904,64.47100
98.1210526316,0.01957,53.89831
98.7035087719,0.02249,32.41024
99.4017543859,0.02587,19.70985
99.5880701754,0.00797,5.38509
99.6831578947,0.01503,4.15304
98.7326315789,0.03430,2.81985
98.12,0.02290,3.86642
97.7617543859,0.00229,5.37295
97.1842105263,0.00237,9.10393
97.0821052632,0.00172,34.00124
96.8175438596,0.00763,52.06711
96.6814035087,0.01266,67.94804
96.8435087719,0.00858,69.60897
96.3877192982,0.00454,77.35528
96.3410526316,0.00162,80.93587
97.2512280702,0.00000,73.15046
98.3589473684,0.00802,58.36520
98.8656140351,0.02901,35.74970
99.5449122807,0.02174,20.59535
99.6319298245,0.00251,6.38629
99.6126315789,0.00374,5.41525
99.2519298245,0.00457,4.56284
97.6680701754,0.00428,3.23138
97.9007017544,0.00341,2.07072
97.6252631579,0.00333,8.35893
97.1585964912,0.00273,35.58384
96.9224561403,0.00225,47.20110
96.0042105264,0.00234,65.41122
96.9947368421,0.00350,69.75175
96.2070175439,0.00292,80.34873
96.0887719298,0.00312,80.96095
97.0564912281,0.00563,70.56373
98.3603508772,0.02544,60.76071
99.0715789474,0.02404,35.34365
99.3957894736,0.00568,21.83941
99.4101754386,0.02384,8.12982
99.3912280703,0.02048,7.27834
99.3936842105,0.00527,4.30797
98.9347368422,0.00476,2.07779
97.9884210526,0.00292,1.58126
97.8922807017,0.00372,6.57631
97.0414035088,0.00483,27.47471
96.9371929824,0.00256,41.88513
96.0610526316,0.00993,60.93699
96.5954385965,0.01394,68.01383
96.4273684211,0.03749,79.45829
96.1361403509,0.03602,78.54503
96.5961403509,0.01664,72.93669
98.2108771929,0.01923,64.99622
98.6708771931,0.00488,39.88033
99.5070175438,0.00176,25.14458
99.3270175438,0.00152,10.47021
99.3894736842,0.00172,8.05109
99.3859649123,0.01319,6.19547
98.0894736842,0.01664,3.19401
96.0505263158,0.04703,4.19361
97.1726315789,0.05080,5.12435
94.7978947368,0.07059,7.12755
94.2792982457,0.06815,12.79033
97.0835087719,0.06269,30.46616
95.5231578948,0.05083,39.74289
96.7063157895,0.03336,53.48371
96.3894736843,0.03165,60.72268
95.8094736842,0.01519,67.35544
96.3319298246,0.01343,65.95739
97.6287719298,0.00928,59.47929
97.9919298246,0.00652,49.13705
98.1101754386,0.00541,38.77652
98.1649122807,0.00461,40.18271
97.1975438596,0.00227,28.85234
97.0180701754,0.00344,21.19270
86.6015789473,0.01477,13.97481
81.8000584795,0.02571,35.99305
67.5442690058,0.01282,50.13660
76.7097076023,0.00674,56.94336
84.0577777777,0.00803,71.39553
88.5598830409,0.00533,76.88110
89.6416374269,0.00664,69.67876
93.8847953217,0.00568,64.97091
94.6732163743,0.00872,70.03308
94.4479532164,0.00901,73.52800
92.4063157895,0.00464,67.41856
92.4824561404,0.00829,67.22293
92.7796491229,0.00998,59.48129
92.7603508772,0.00816,40.53525
93.0589473685,0.00819,40.50563
89.9743859648,0.00918,51.69041
91.4985964912,0.00959,56.98384
89.8964912281,0.01157,62.38054
87.2480701755,0.02174,63.77338
85.0968421053,0.03307,64.00050
86.3378947368,0.06409,63.22121
87.1687719298,0.11941,64.64888
88.5764912281,0.20608,59.70534
85.6891228069,0.19270,56.92352
87.7768421053,0.16163,57.82397
87.8091228071,0.22234,56.41885
87.8887719299,0.19193,50.55591
84.5821052631,0.21405,51.54430
81.6252631579,0.23821,56.74885
85.3670175438,0.59554,50.90672
74.7989473684,1.49644,45.23874
76.9136842106,2.14002,47.41834
75.3442105264,3.00321,46.77863
70.898245614,3.08948,42.81947
69.7547368421,3.37895,38.97067
74.6649122807,3.18545,38.02672
77.2459649123,2.67632,43.35737
62.7529824562,2.71923,42.47934
73.8919298245,2.65775,46.25541
82.3175438597,2.42333,49.31972
69.9778947368,2.66903,38.91089
65.9522807017,2.91878,34.85659
57.7557894737,3.07464,45.11704
73.3957894736,3.15499,49.76635
80.1428070176,3.16468,42.76677
61.2375438596,3.06660,38.03900
61.7996491227,3.16325,41.32295
80.3049122807,3.45352,43.08729
82.8985964913,2.75024,40.96039
76.1649122807,2.00832,47.42795
79.6343859649,0.80601,52.27715
81.3603508772,2.93113,48.11009
80.210877193,4.41619,42.54165
75.3021052632,3.02116,38.72074
57.9666666666,9.02263,44.29825
43.0680701754,17.08765,48.37510
54.1014035088,36.69501,36.49843
69.3084210526,36.79506,28.79469
78.6487719298,23.94154,23.05545
69.6221052632,15.20480,31.77040
73.7607017544,10.14495,52.99332
81.9845614035,9.36204,57.41738
79.3375438596,3.65242,59.18893
73.3557894737,4.45310,57.90003
59.3466666666,3.20231,75.31071
53.5919298245,1.32384,79.21396
72.7470175439,2.18063,68.86064
89.3743859649,2.02177,57.93686
88.6680701754,1.23806,36.93452
90.0582456141,0.79587,28.15391
92.4561403508,0.74833,20.58815
97.2726315789,0.70564,22.81699
93.4968421053,0.39165,12.40856
96.0568421053,0.58969,9.40043
95.9431578947,0.43917,9.46421
94.5407017543,0.75210,4.47503
95.5771929824,2.54228,3.60968
98.1698245614,2.27747,3.15945
99.4270175438,1.52678,2.60154
99.0543859649,1.19395,3.37949
99.0926315789,0.13665,5.41485
99.5294736842,0.16069,4.91952
99.4845614035,0.13661,3.85708
99.207368421,0.07607,3.90605
98.6757894736,0.06897,4.03695
97.4698245614,0.04551,5.10540
96.7666666666,0.06575,7.59019
99.4666666667,0.14617,6.85827
99.7775438597,0.33228,3.56017
99.7607017544,0.20857,2.18134
99.7621052632,0.04529,2.01414
99.7638596492,0.04242,2.29703
99.7238596491,0.05781,2.61128
99.7010526316,0.05795,2.31104
99.7094736842,0.02442,1.65545
99.7754385965,0.00759,1.78556
99.8031578947,0.04858,2.38283
99.8077192982,0.06264,2.15145
99.6175438596,0.03679,1.61449
99.7522807017,0.08513,1.48639
99.7757894737,0.07283,2.55110
99.7792982456,0.00575,2.63303
99.7750877193,0.00882,2.02241
99.7350877193,0.00899,2.13023
99.7168421052,0.00691,2.24659
99.7456140351,0.00986,2.04136
99.7915789474,0.00887,1.81798
99.7975438596,0.00696,1.30010
99.7242105264,0.00713,1.81224
99.7119298245,0.00775,2.19668
99.7417543859,0.00887,2.06525
99.8280701754,0.04455,2.02855
99.8270175439,0.06254,0.90365
99.8189473684,0.02007,0.75967
99.8084210526,0.03264,3.15772
99.7985964912,0.05757,2.88470
99.7789473684,0.03945,1.17147
99.770877193,0.01582,0.90125
99.7607017543,0.02145,3.02655
99.7596491228,0.02563,2.83239
99.7915789474,0.01205,0.43595
99.8091228069,0.00722,0.38604
99.7238596492,0.04271,1.59087
99.7007017544,0.07220,1.80611
99.7547368421,0.05602,0.78036
99.7564912281,0.03940,1.38724
99.7863157895,0.02247,3.06458
99.7729824562,0.00674,2.30063
99.7284210526,0.11402,1.17347
99.7189473684,0.18596,1.97864
99.7221052632,0.08018,3.68787
99.7631578947,0.00749,3.09954
99.7656140351,0.00430,1.05271
99.7771929824,0.00167,1.16013
99.7873684211,0.04022,2.61929
99.7894736842,0.05099,2.44662
99.8063157895,0.01582,1.59447
99.8147368421,0.00679,2.15892
99.7540350877,0.01251,2.57272
99.7256140351,0.03539,2.30664
99.7070175438,0.05737,1.38284
99.7312280702,0.04955,0.36509
99.7231578947,0.04442,1.75954
99.7494736842,0.05655,1.99319
99.7656140351,0.04324,1.81958
99.7515789474,0.01126,2.97504
99.7449122807,0.00843,2.60394
99.749122807,0.00882,1.60355
99.7417543859,0.00920,1.20936
99.7378947368,0.00725,2.21683
99.7515789474,0.00609,3.46663
99.7666666666,0.03640,2.27515
99.7557894737,0.06865,1.00147
99.7628070175,0.05416,2.14678
99.7617543859,0.02326,3.57578
99.7803508772,0.00995,2.34627
99.7884210526,0.00519,0.56605
99.7800000001,0.00440,1.74472
99.7915789474,0.03341,3.49639
99.8115789474,0.03341,2.48158
99.7691228071,0.00580,1.00547
99.7035087719,0.01949,1.57886
99.7435087719,0.03650,2.66412
99.7438596491,0.02283,1.73005
99.7529824561,0.00686,0.26555
99.7378947368,0.00575,1.06498
99.7168421053,0.02742,2.92220
99.7136842105,0.07385,2.76260
99.7294736842,0.06329,1.63130
99.7905263158,0.03360,1.98372
99.8171929824,0.06520,2.65572
99.8221052632,0.08356,1.79783
99.7715789474,0.06339,0.63090
99.7536842105,0.03621,0.00000
99.7557894737,0.04725,1.42487
99.7578947368,0.03614,2.56124
99.7403508772,0.02152,1.49786
99.7245614035,0.02483,0.94836
99.7284210526,0.01843,2.65772
99.7550877193,0.02836,4.48825
99.6992982456,0.02186,3.43888
99.7045614036,0.00742,1.81144
99.7838596491,0.00795,1.67574
99.8196491228,0.00725,2.00627
99.8143859649,0.00486,1.96930
99.7838596492,0.01872,1.29156
99.7807017544,0.04950,1.38297
99.7691228071,0.04387,2.25006
99.7740350877,0.01561,1.99853
99.3045614035,0.00826,2.21083
97.7115789474,0.01389,3.32599
98.3585964912,0.11694,6.83452
93.1375438597,0.22217,10.03707
80.6656140351,0.25993,10.52279
69.0122807018,0.48303,17.48808
66.5407017543,0.61817,39.37072
74.7014035088,0.86253,46.22606
83.5035087718,0.87909,41.78318
87.7449122807,0.74188,32.27186
86.8522807017,0.53222,21.21545
91.1838596492,0.24935,22.05572
97.3408771929,0.24833,27.18661
96.0840350878,0.30942,20.71118
91.5694736843,0.24855,22.54011
89.750877193,0.11040,20.14126
82.1829824562,0.22350,25.48272
73.7784210526,0.22289,36.26451
56.4231578948,0.08783,44.35537
51.2610526315,0.09163,49.66373
57.5257894737,0.09700,58.11887
69.0928070175,0.08840,56.43139
77.4647368422,0.08980,53.99785
78.9156140351,0.08879,44.99828
81.4375438596,0.08001,36.27079
84.647368421,0.05633,38.94492
90.1164912279,0.04377,44.78344
90.2150877193,0.07054,36.85232
93.9245614036,0.08279,33.75064
90.74,0.05000,22.44857
93.3821052632,0.05868,17.67209
95.0217543859,0.06713,18.18156
97.7242105264,0.08030,15.77671
98.9270175439,0.14888,9.43806
99.4203508771,0.12274,10.71067
99.549122807,0.03343,4.41966
99.5529824561,0.02541,6.72163
99.6677192983,0.02469,6.37615
99.6919298245,0.02375,2.61582
99.6750877193,0.03201,2.82332
99.4677192982,0.03160,4.02094
99.0529824562,0.00459,2.36949
99.5985964913,0.01193,1.24059
98.5280701754,0.02092,3.04042
94.5156725147,0.07233,6.47454
94.5037426901,0.07149,6.36365
94.519883041,0.05066,5.77919
95.5719298245,0.07225,5.44074
98.3659649123,0.05761,4.28435
99.6740350877,0.01391,3.88149
99.5747368421,0.01138,4.18507
99.4164912281,0.00761,2.84507
99.6066666666,0.00676,3.42313
99.6575438597,0.00831,6.49104
99.6968421053,0.00780,5.12796
99.6403508772,0.00715,1.92620
99.6519298246,0.00746,1.19295
99.6856140351,0.00630,2.47624
99.7098245614,0.00452,2.56458
99.6498245614,0.00341,1.33546
99.7024561403,0.00486,2.05097
99.7098245614,0.00502,2.54576
99.7133333333,0.00544,1.99346
99.6743859649,0.04203,1.78849
99.6845614035,0.05428,1.60088
99.6652631579,0.02846,2.62596
99.6638596491,0.01362,3.35427
99.7112280702,0.00510,1.78582
99.7003508772,0.00589,0.77315
99.6964912281,0.00437,1.70082
99.7003508771,0.00167,2.75420
99.6961403509,0.00297,2.35121
95.9080701754,0.00473,3.65652
94.5314035088,0.01585,7.36614
94.5191228071,0.01570,6.82798
94.5154385965,0.01505,6.38829
85.2522807018,0.04370,6.87735
73.1157894737,0.08497,17.62272
57.6936842106,0.08707,20.71665
49.2587719298,0.06588,28.41939
36.7433333333,0.08021,49.13845
34.0,0.09939,60.43499
38.348245614,0.11106,65.61252
42.8631578947,0.13808,68.81647
49.5722807018,0.14407,69.79485
62.3861403509,0.13638,70.74501
72.3628070175,0.14124,78.98378
81.2100000001,0.12799,66.41449
86.4880701755,0.09315,52.42200
86.8201754386,0.07422,45.47159
90.2592982455,0.05885,31.44561
86.069122807,0.03357,25.59352
93.9957894737,0.03041,21.87495
94.2747368421,0.03717,16.06525
94.3456140351,0.03855,16.33729
94.4357894737,0.03563,13.34197
94.5084210526,0.01551,8.47903
95.5150877193,0.02993,7.17078
95.5557894736,0.03005,6.74084
98.2133333334,0.01348,6.86147
99.5680701755,0.01510,6.85200
99.5719298245,0.01143,5.44594
99.6726315789,0.00630,4.92686
99.7242105263,0.00628,2.61222
99.7049122807,0.00696,1.76874
99.6445614035,0.00498,2.47224
99.6256140351,0.00515,1.76087
98.9512280702,0.00652,1.89991
94.5942105263,0.01018,4.49852
94.6194736842,0.01011,3.77915
94.578245614,0.01044,5.63276
94.5487719298,0.03256,5.91218
94.5536842106,0.03645,5.58178
94.5929824562,0.02875,6.01066
96.8035087719,0.03814,5.98250
97.5115789474,0.03783,6.66158
99.6066666667,0.04923,7.06990
99.5522807017,0.02937,6.13609
99.4814035087,0.00679,4.25940
99.6319298245,0.00913,3.70309
99.6712280702,0.00920,1.63997
99.7028070175,0.02203,2.42273
99.6989473685,0.02780,2.88070
99.6866666666,0.01131,3.05524
99.6796491228,0.03764,1.96090
99.6515789474,0.03855,1.43795
99.6561403509,0.00652,2.85468
99.6378947368,0.00338,2.46970
99.6810526316,0.00517,1.75086
99.6736842105,0.04276,1.64318
99.6680701754,0.06677,2.83533
99.6708771929,0.04150,2.77621
99.6835087719,0.03090,2.11195
98.3978947368,0.01833,2.27328
95.4733333334,0.00800,3.14664
94.5042105263,0.01367,5.67799
91.4210526316,0.01391,4.86348
82.2578947369,0.02617,10.96748
71.3564912281,0.03779,15.95959
60.7814035088,0.05196,29.06331
44.2505263158,0.07880,46.39206
32.5319298245,0.08456,51.72057
35.8378947369,0.09331,62.05401
41.8848245614,0.10174,65.36552
51.6062280702,0.10830,69.63639
62.8072807018,0.10737,69.77163
72.8592105263,0.10378,71.83648
78.1470175439,0.08872,71.44043
79.5407017544,0.06787,60.54841
86.1815789473,0.06592,50.87416
87.13,0.04662,45.13172
89.1210526315,0.02991,34.62234
89.2512280702,0.02280,21.17695
89.9385964913,0.02184,16.01450
90.5396491228,0.06411,18.33048
93.9589473684,0.04841,14.79727
94.1771929825,0.06051,14.20186
94.3810526315,0.17468,15.06615
94.4768421052,0.16238,14.67904
94.4789473684,0.03520,7.83078
94.4470175439,0.01667,9.22976
96.2063157895,0.02785,7.85013
99.5964912281,0.03167,6.40898
99.5992982456,0.01737,6.12395
99.6831578947,0.01329,6.80809
99.7263157895,0.03752,5.12836
99.7196491228,0.03104,1.17894
99.6610526316,0.00452,1.26047
99.6133333333,0.00602,1.34014
99.6389473685,0.01536,1.03189
98.3357894737,0.02986,1.67774
95.1391228071,0.02414,5.93093
95.1191228071,0.01025,7.31590
94.5908771929,0.02061,6.47316
94.5445614035,0.04691,4.91592
94.5575438597,0.04056,6.16598
94.0631578947,0.01387,5.93447
90.0691228071,0.01803,8.79648
90.0852631579,0.01663,8.90497
92.3912280702,0.01288,11.02826
85.5715789475,0.03132,14.59252
71.3663157895,0.04226,19.00257
58.7466666667,0.06953,30.67682
47.4736842106,0.31441,38.51244
42.5245614035,0.36978,44.03111
33.7543859649,1.55031,54.55930
32.9180701754,1.94767,57.22696
30.9276608187,3.67882,61.08464
43.7967836258,7.36183,58.00351
52.8146783625,9.47371,52.26307
55.1789473685,13.48015,44.61197
65.9807017544,16.42604,38.35205
63.5028070175,11.95333,31.25145
61.1369590645,11.15151,34.46415
73.4099415204,9.17184,40.70045
70.2513450293,6.83683,33.79748
66.9096491229,5.86966,28.22457
70.8005263158,5.00963,27.93914
78.1435087719,5.60134,30.05290
71.6652631578,7.01811,30.96002
72.0026900585,6.94378,35.34689
78.1883040935,6.72521,33.84183
69.2823391814,7.26166,26.83477
73.1554385965,5.87322,28.34914
72.4750877193,5.70959,32.74678
66.3582456141,5.65316,32.58972
76.7954385965,5.34497,34.48163
73.9585964913,4.85021,35.62601
81.2578947368,5.08912,31.58065
75.2512280702,5.10750,27.68327
78.2466666666,6.75410,27.86382
79.2936842106,7.58799,33.09038
76.4821052632,6.00198,33.91077
73.2859649123,5.36497,29.88823
76.2964912281,5.52426,26.11282
79.9031578948,5.93072,27.11615
70.7575438596,5.95971,27.81951
73.6614035087,6.16125,30.20008
72.6266666667,5.56155,31.51700
71.550877193,4.76368,33.89609
71.9757894737,4.94991,33.79922
67.8231578947,4.80214,34.49524
73.2814035088,4.68913,33.97536
70.4140350877,4.93831,25.98872
71.4494736842,4.75230,29.25986
79.8729824562,4.84869,35.93532
69.774385965,5.63591,30.98964
75.8659649123,5.11666,29.95121
79.9119298246,5.49495,29.04889
73.4557894737,5.87153,25.63457
78.441754386,4.20907,32.90837
79.6154385965,3.36078,37.66537
79.4414035088,3.64914,27.00487
83.3070175438,4.29869,26.14952
74.3971929825,3.99586,35.64469
73.7964912281,3.71059,37.41236
76.2445614035,3.99265,34.88715
81.0803508772,4.08978,31.99698
81.2196491228,4.53069,25.72278
82.5929824561,4.65007,26.50527
82.2305263157,3.88203,35.80482
79.2529824561,3.31657,38.57089
77.8880701754,3.62602,33.20074
78.2733333334,3.75724,27.17500
79.4852631579,3.54848,26.20356
76.0210526316,3.52166,28.37342
81.4957894736,3.45480,32.79482
79.5203508772,3.31070,37.88421
79.5463157894,3.47166,33.84165
76.1824561404,3.42656,23.79004
84.2210526317,3.15436,25.15339
84.8785964913,3.20992,35.31469
80.5571929824,3.62078,36.68258
82.2954385965,3.93810,37.38581
76.7129824561,3.78954,33.68940
71.0663157895,3.72900,24.78950
83.4392982457,3.60225,26.59627
77.7196491228,3.20922,35.26639
71.6743859649,3.32885,37.83417
72.0792982456,3.86971,33.04008
71.5771929824,4.00746,29.46309
81.9978947368,4.37126,31.53488
77.0045614035,5.03912,30.44641
75.738245614,4.25342,32.61000
74.1571929824,3.56739,31.61267
71.1336842105,3.75905,27.96123
78.9494736843,3.70286,30.75612
82.1354385964,3.56568,32.43546
80.6424561404,3.65308,29.10414
82.8175438595,3.30288,31.71515
77.5063157895,3.23417,34.50458
75.0003508772,3.58012,28.71223
72.6484210526,3.81563,28.45309
72.7519298245,3.77814,32.56210
71.9315789474,4.30553,33.83938
71.8133333333,4.96025,32.65617
77.4133333334,5.10854,30.89170
77.4621052631,4.69802,28.50366
72.0445614036,5.69833,27.11402
70.6712280702,6.85481,28.36061
68.6133333333,6.88510,32.63122
70.5543859649,7.82190,35.21501
77.2519298246,8.59262,32.70141
76.0922807018,9.42711,26.91293
71.2484210526,10.03538,23.72225
71.8940350877,8.57262,27.73918
70.8933333333,7.27605,35.18912
74.1168421053,6.43426,35.63161
83.3550877193,5.70275,29.55823
75.6221052632,4.97916,23.14966
73.7933333334,4.61695,24.11990
74.0971929824,4.93858,30.67339
76.9782456139,5.06407,33.80575
79.5747368421,4.73588,35.52446
78.8445614036,4.34906,31.08278
77.2171929824,4.23980,27.92480
79.9171929824,4.32908,27.76961
80.8849122807,4.55304,30.37035
79.6042105263,4.55818,30.31284
74.6856140351,4.02893,31.97576
79.8610526316,4.08850,29.89090
77.0010526316,3.93921,24.95456
72.1649122807,4.17592,30.27948
78.2670175438,4.22844,33.41731
76.6831578948,4.02366,32.85179
73.3621052631,4.61669,32.23584
73.9628070175,5.66309,29.19168
67.4329824562,6.72330,26.79857
59.8178947368,7.00132,28.65325
67.7312280702,7.22308,34.53100
76.9175438596,7.95061,34.44960
66.5592982456,8.76826,27.32138
69.7954385965,8.37574,25.28002
73.2192982456,6.96475,28.17593
61.8985964912,6.19808,29.75012
67.5835087719,5.35786,35.01859
78.1,4.92814,34.12641
71.3880701754,5.61924,25.89144
70.8982456141,5.02008,26.88464
77.1677192983,3.91172,28.76080
70.5378947369,3.94888,30.32445
79.5771929825,3.67772,35.82843
79.7505263158,3.70692,33.94346
71.6943859648,3.69257,27.40332
70.1392982456,3.66192,28.34954
76.1024561404,3.07960,34.47976
77.5224561403,3.17603,33.24104
76.8624561404,3.64341,30.97990
78.8252631579,4.11708,32.10960
67.2270175439,4.47511,32.33565
64.4115789473,4.80567,29.75919
70.6947368421,5.00426,30.81070
79.4519298245,4.65159,31.39263
68.1870175438,4.32591,28.55237
72.9568421053,4.30533,28.73171
77.1715789474,4.24245,32.54515
70.6803508772,4.76221,31.74558
75.3743859649,4.70177,30.47710
82.5340350877,4.39317,31.01927
72.7743859649,4.29922,28.74852
79.3098245614,3.99038,31.39757
84.2487719298,3.76594,38.28092
79.2231578947,3.58107,37.17684
77.4073684211,3.54882,32.76372
85.8364912281,3.67941,29.70035
81.7677192982,3.42745,28.38984
74.1701754386,3.22294,31.36474
83.4670175438,3.53087,35.45507
76.276491228,3.62353,29.78935
72.8933333333,3.43231,25.83313
84.8182456139,3.35373,31.36688
84.3589473685,3.45494,36.81602
87.1263157895,3.61600,32.15777
79.0628070176,3.31544,34.19233
84.5624561403,3.02604,34.30455
84.3477192983,3.48321,32.40384
72.2873684211,3.55546,29.43467
81.9631578948,3.45695,35.10612
87.7596491228,3.33699,34.44747
79.898245614,3.56063,27.38357
82.2708771929,3.50707,31.03221
85.7975438597,3.27882,36.03967
77.5663157894,3.29230,32.55729
85.3421052633,3.40636,32.15684
85.1414035087,3.51937,34.05262
81.8105263157,3.14818,33.30696
72.2164912281,3.00565,32.10226
83.3877192983,3.08634,30.27601
75.3603508773,3.10081,33.11721
72.6782456141,2.74715,33.39449
80.8526315789,2.93393,32.61894
66.2438596492,3.46519,28.63056
69.5775438597,3.76806,27.84647
82.0792982456,3.67020,33.82417
81.2364912281,3.68760,33.99978
72.2694736842,3.37827,30.56717
78.0866666666,3.11015,31.84459
82.0407017543,3.12868,34.79054
77.1733333334,3.26869,30.56290
78.7554385965,3.44453,28.57638
62.5098245615,3.51628,31.41038
70.0456140351,3.35969,37.00124
84.8722807018,3.31650,34.53073
78.6084210526,3.45250,30.31964
80.9705263157,3.45429,31.52620
83.8775438596,3.17654,33.22623
77.4312280702,3.14194,30.36861
80.7410526316,3.26234,31.09319
81.0161403508,3.30771,33.64763
75.6922807017,3.63641,29.13830
79.5614035087,3.77599,30.45415
76.7519298246,3.49125,33.78027
79.6912280703,3.64213,31.77720
76.7466666667,3.87027,25.24973
77.0501754386,3.83937,27.53209
72.9957894736,4.40718,33.08812
65.2431578947,4.97508,35.20087
76.0807017544,5.38234,36.62800
75.5210526316,6.23797,30.59573
66.3557894736,7.18119,22.31406
66.4249122807,7.13056,26.80270
78.3059649123,6.38624,35.80188
77.1933333333,6.24401,36.44493
71.4670175439,5.63195,35.10279
73.8242105263,5.49836,29.13843
75.2733333333,6.00319,23.32647
64.9519298245,5.91504,27.93441
81.7624561403,5.10391,37.58490
81.2529824563,4.99073,34.00511
71.4494736843,4.83108,27.36689
86.7329824561,4.42288,27.08626
80.9470175439,4.08142,33.67512
80.8743859649,4.02726,38.31281
82.2578947368,4.05831,37.17004
88.9122807017,3.98888,29.05116
81.1877192982,3.99405,28.58626
79.4722807018,4.28845,30.25919
79.1712280702,3.74081,35.91170
74.5852631579,3.25739,38.85832
72.3487719298,3.37457,32.01112
80.5494736842,3.78980,27.97911
72.7645614035,4.29934,28.37502
78.6231578947,4.25832,32.40464
81.2557894737,3.78630,33.82043
78.8982456141,3.58938,32.58972
78.1652631579,3.65288,36.48229
76.4108771929,3.65704,29.56397
70.0645614035,3.87742,27.03689
77.9922807017,4.16356,34.43679
73.9996491229,4.04961,31.74398
72.5789473684,4.14877,29.43133
77.6354385966,4.31673,32.47683
80.9705263158,4.89355,30.29562
76.8301754385,5.18505,29.03302
76.1052631579,4.77714,33.73783
83.0266666667,5.48947,33.97816
67.2466666667,5.86482,31.97109
73.227368421,5.29341,30.26413
75.8733333332,5.79348,28.92480
69.1368421053,6.27676,29.45108
79.7210526316,6.13796,28.87956
80.9568421053,6.80048,28.05730
79.7417543861,6.19391,33.19380
77.2291228071,6.35909,31.10867
71.7080701755,6.51386,27.68874
74.7870175439,6.43516,30.92426
82.1308771931,6.81737,30.82858
70.1501754386,7.36285,25.85969
66.0466666666,7.99921,29.60841
78.9270175438,8.54950,32.61507
65.2603508773,8.11738,26.55050
70.1305263158,7.55528,28.11308
80.9252631578,6.38540,33.19553
74.8796491228,5.77027,31.50325
69.4964912281,6.44480,31.72276
70.0045614034,6.51896,32.71195
60.6715789474,6.89170,29.25653
60.9940350877,8.09977,28.80990
61.2915789474,10.29019,31.49338
60.4564912281,13.90703,33.56383
59.4214035087,15.73600,30.44521
57.3161403508,18.22212,27.09961
60.06,20.63767,20.90493
59.2978947369,22.97063,17.20879
65.3270175439,21.63909,22.01555
57.6571929825,21.41030,23.38371
62.7603508772,19.90719,23.25014
70.9901754386,19.06188,25.20877
60.5473684211,17.55542,25.10375
64.1859649124,15.80785,28.25106
49.8178947368,15.33462,25.84981
63.1396491228,14.85484,23.10109
70.3368421052,14.52426,20.09229
60.8771929825,14.57382,19.24948
60.6796491228,16.15469,26.57172
68.6207017545,14.32272,31.21275
59.1828070175,13.09930,26.94615
65.34,12.75920,26.84394
56.8887719298,14.52802,23.77309
56.6621052632,14.55935,22.05278
68.1175438597,13.90311,23.43909
62.4845614036,15.23168,22.96124
59.3954385965,15.70291,25.02288
58.594385965,14.37605,23.79951
54.7059649123,13.11524,23.49967
68.4245614034,13.27540,26.01581
49.0066666667,13.85110,25.72304
66.1519298246,13.11606,24.62710
66.5459649123,12.74852,26.12523
60.8831578948,13.16384,24.38064
69.0442105262,12.20891,27.03836
55.4940350877,12.42475,25.87903
65.652631579,13.08550,24.52088
74.8543859649,12.17146,28.02768
56.5529824561,12.14832,27.28589
70.2905263158,12.31440,26.89117
73.9754385965,12.17108,26.84540
55.9235087719,11.38799,23.19556
69.5049122807,12.59288,26.21437
64.6607017543,14.13787,27.32872
47.9803508772,13.19317,28.70742
59.9971929825,14.49981,35.42571
41.9978947369,19.86465,32.06703
29.3873684211,23.89912,31.27053
26.2442105264,24.89585,37.17404
21.5256140351,27.32594,47.66214
23.5933333333,32.10922,46.47452
16.3743859649,34.80274,42.81027
14.0989473685,31.71343,44.05606
17.9315789474,29.67499,51.22204
13.2414035088,31.66679,52.63530
10.8361403509,35.20765,51.79023
11.0870175439,36.52557,50.03563
11.0210526316,36.51473,50.41847
12.5133333334,31.28535,53.67773
13.3950877193,26.42176,54.91018
10.8329824562,30.61225,52.15839
10.0059649123,41.82126,47.37511
8.6480701754,40.62098,48.86736
5.46105263159,28.98022,57.60473
7.93859649121,25.77286,61.11233
9.28666666669,34.62828,57.71402
9.48350877193,45.16962,49.90606
9.95824561403,41.26887,50.11302
8.06,30.48074,56.11955
6.22280701755,25.61195,61.94606
8.83333333335,29.94183,59.66798
7.96245614035,44.19125,49.24673
7.34245614037,45.32340,45.85469
8.41964912279,33.31797,54.04789
6.18070175436,26.57880,59.03694
6.19368421052,33.16412,54.52961
9.25824561402,42.90879,49.10702
6.10771929825,38.57510,51.87670
6.91368421051,27.42899,58.18332
8.50982456142,28.66116,57.35240
5.51543859649,39.49989,49.78076
8.00315789476,41.12984,48.12784
7.05754385965,34.35357,50.65372
5.26912280701,29.48386,54.03749
9.30526315788,31.23757,58.88562
5.52140350877,35.84638,57.20695
4.02035087717,37.61374,51.55657
7.49017543858,36.86548,49.58620
6.99157894733,33.73170,52.05497
8.58491228069,33.87316,52.04803
8.31122807018,36.47784,50.30518
5.29052631579,35.66197,52.41286
7.28315789474,35.23275,52.92447
9.54035087719,34.91925,55.43847
6.18771929825,35.24350,54.58672
6.69789473682,34.50832,52.41913
5.06596491228,32.36458,54.37269
4.390877193,34.73037,54.78528
4.14210526314,38.52113,51.70509
3.44421052633,35.32047,53.02628
3.41543859649,35.14934,54.17987
2.31192982456,36.48917,53.61568
2.78807017544,36.18305,53.53522
3.24736842105,39.09162,52.69642
1.8052631579,38.64177,53.09020
3.66736842105,38.46040,52.54897
5.15263157895,38.80947,51.79316
4.57824561404,34.23568,53.70842
4.56315789476,32.01273,54.76660
2.25964912283,38.03730,55.55950
2.88140350879,42.24687,53.12276
4.77649122806,40.83994,50.46504
2.3750877193,36.39249,52.28502
3.36105263159,34.59707,55.27407
5.38035087721,34.22614,56.38256
4.86385964914,38.09018,52.77034
4.41964912279,38.90965,53.02588
2.95508771928,32.66789,56.15331
4.25438596493,34.45896,53.25406
5.23298245614,39.53308,51.32212
2.56210526316,36.37271,53.90498
4.25508771928,33.07693,54.59059
3.43508771931,38.48640,52.07926
4.02385964911,39.12312,51.64224
5.11894736844,36.73231,52.37056
4.08456140349,33.14643,54.27034
4.65473684208,35.32404,56.76059
3.00631578946,35.72584,56.22003
2.29473684212,35.35170,55.24525
4.8105263158,36.67679,54.12809
3.74701754386,39.56340,51.86375
4.23122807016,36.45827,54.18307
5.03157894735,34.55912,54.42980
2.52245614034,37.49399,50.10635
4.33614035088,37.74268,51.81785
4.98736842105,33.23250,55.43673
3.59894736842,32.92748,57.08912
4.98631578949,39.40827,52.98998
3.56736842107,39.38283,51.65679
1.69298245613,32.07827,54.05457
4.1238596491,30.99139,57.08338
5.00035087717,40.03033,54.49759
4.60035087719,40.42058,52.72150
5.37473684212,36.64935,51.96010
3.22140350875,34.54037,53.09927
4.65228070177,35.20763,54.90484
5.28140350877,35.34619,54.75793
2.94877192982,37.71432,53.68841
5.22140350877,39.12686,53.75393
5.17105263158,39.27614,52.54423
2.68894736841,35.23598,53.50406
0.755087719297,33.81562,53.81798
0.909122807019,35.81319,55.20455
0.754385964914,38.76089,55.02908
0.651578947372,40.58248,53.19415
1.03684210526,36.82161,55.59953
0.831578947367,32.22019,60.21721
0.751578947368,37.76790,53.15411
0.921754385965,39.00871,55.24538
0.910877192984,38.48727,55.07738
0.631578947371,38.98692,55.24552
0.953333333339,37.77476,56.96008
1.00105263158,36.08411,56.07898
0.612807017545,34.97444,55.01587
0.779122807014,33.99634,57.32584
0.76175438596,31.94819,57.73016
0.844561403512,40.62299,52.41352
0.678947368421,39.30533,55.09259
0.902631578947,34.18921,58.64329
0.886140350884,36.84396,54.88323
0.764561403508,38.03619,53.13930
0.789824561396,32.73181,57.41818
0.820701754383,35.07815,55.28555
0.801052631575,39.90930,50.91233
0.704210526314,39.19407,52.86041
0.910877192981,34.12674,58.33571
1.00140350877,34.41638,58.62167
0.593684210523,34.29095,58.13956
0.818596491226,31.65485,59.50892
0.921929824562,36.43167,56.63716
0.680526315792,42.92952,53.14904
0.802456140349,38.61399,53.90738
0.746666666665,34.82378,53.87722
0.935789473684,32.70763,53.93727
0.780000000004,34.79969,55.19468
0.690175438594,39.72093,51.17527
0.77649122807,36.93945,51.22144
0.915789473693,33.39889,54.56657
0.801052631577,34.23361,57.74257
0.685964912284,32.15678,59.15463
0.921754385968,35.57319,55.05390
0.898421052626,39.95196,50.21083
0.717017543863,34.38130,52.97824
0.735438596493,31.92318,58.36867
0.98,31.99078,58.35386
0.695438596492,41.71895,50.82346
0.654736842105,37.68572,53.63944
0.950175438598,34.70662,52.46396
0.849122807017,38.83638,50.84641
0.587719298245,35.71391,56.54068
0.796842105263,33.60580,57.11954
0.872280701755,35.78162,54.06738
0.810526315788,40.66533,51.11209
0.768771929821,40.99780,52.49305
0.752982456143,35.64685,54.51093
0.743859649125,32.34738,57.11901
0.903157894735,34.47363,56.75765
1.00175438597,40.77559,52.54243
1.20210526316,41.87042,49.30825
1.08631578948,39.15281,50.49026
0.937192982454,35.49439,55.84573
0.852982456139,32.25727,60.02639
1.00280701755,38.00913,56.26633
1.17824561404,44.64887,49.52709
1.02350877193,45.17262,45.81146
1.33157894737,45.23854,43.10864
1.87017543859,48.04688,39.93157
2.47614035088,49.00160,40.32509
1.51614035089,48.41549,43.50616
0.962105263154,45.77545,46.35156
1.44701754386,52.77445,40.17063
1.79543859649,55.08634,38.20126
1.27894736842,51.88012,38.54727
1.22807017544,57.23786,32.51606
1.09473684211,55.52302,36.16577
1.3701754386,56.77876,35.00151
1.36421052632,52.24377,37.79614
0.762807017546,44.52696,45.88258
0.494385964914,40.28503,49.63704
0.528070175441,35.00413,53.86148
0.886666666666,36.55077,53.93180
0.986315789475,33.50787,57.88736
0.580350877192,32.15572,57.36147
0.756842105259,30.39428,56.96382
0.762105263161,35.85648,53.53202
1.81052631579,38.80019,51.67427
0.728070175441,36.76439,51.27555
1.47964912282,37.92432,49.87710
2.12491228069,43.65388,46.31680
2.03228070178,43.77960,45.55112
1.85122807015,43.93727,45.52416
2.05298245614,45.72767,45.23914
1.49859649123,52.46655,39.05821
2.09596491228,56.34387,34.85139
2.51526315789,52.78114,37.96974
1.41789473684,55.99142,34.89876
1.2905263158,52.22454,39.07943
1.48666666667,56.67400,37.62400
2.20175438598,57.21757,36.62427
0.924561403504,57.80468,33.54048
1.17929824561,52.59492,37.33537
1.46666666667,40.61002,49.23259
1.06140350877,39.96776,50.71657
0.753333333332,40.07436,52.25860
0.758947368418,44.14958,48.94809
0.89052631579,39.35826,49.95223
1.15929824561,35.09431,52.86749
0.671228070177,35.97221,54.59847
0.678245614035,40.43862,51.38390
0.772280701753,41.44308,50.18001
0.678771929823,39.86519,50.45610
0.930350877191,37.68654,51.02522
1.32105263159,34.48452,54.79916
2.62105263157,39.85988,51.68695
2.12947368421,45.28898,46.98400
2.66561403508,53.19777,39.83510
1.25543859649,50.03703,42.28878
2.67561403506,51.10233,42.94744
4.7110526316,53.36268,40.34457
4.21859649123,58.84996,33.75371
2.44035087717,59.75176,33.43853
2.68982456139,52.43531,38.93891
2.4350877193,50.44799,40.36338
1.15543859649,50.51575,42.87632
1.26701754387,49.67746,43.24448
1.48666666667,40.06047,50.14798
1.10701754386,39.70385,49.55525
0.983859649122,39.32826,53.55844
0.891578947367,40.98464,54.08606
0.82035087719,40.04062,51.56178
0.938245614033,42.47890,47.62117
1.15859649123,36.67237,53.13957
0.797192982453,36.74180,53.17520
1.62385964912,41.42601,51.23285
1.57456140351,39.60493,53.31104
0.809649122811,37.93524,50.78356
0.853333333335,34.64282,52.66613
3.21052631577,37.12775,51.51614
1.70666666667,45.55949,47.13839
1.83859649123,51.64469,43.80519
1.86596491227,54.18059,41.56874
1.43298245614,52.91661,38.57783
1.28315789474,56.61056,35.64936
1.18701754386,61.11050,34.49604
1.1150877193,60.12288,33.87928
1.2098245614,54.54026,38.81748
1.79263157895,48.34408,43.78825
1.30842105265,46.38161,45.72152
0.770877192984,48.09679,45.08221
0.798947368417,40.30610,50.30731
1.75087719298,41.85672,48.42141
1.29614035088,41.33484,50.08033
1.13438596491,43.13381,47.67695
3.15157894735,40.46681,49.54911
0.926315789473,38.81232,52.74245
0.840000000004,37.70676,54.45662
1.48771929824,37.94084,53.03882
1.87052631577,38.36392,54.16639
1.32385964912,33.65172,58.53320
3.48807017542,37.26938,52.34187
2.34877192981,43.04175,45.91701
1.60771929825,47.46408,43.57074
2.72947368421,51.03533,41.26717
1.5803508772,49.35030,43.16375
1.28350877193,56.45521,39.52044
1.32947368421,61.50532,33.19273
1.64982456141,64.02723,28.34513
1.90000000001,61.60405,33.06730
1.44210526314,56.76400,36.62067
0.832631578945,53.54401,40.08476
1.04807017544,49.31922,44.02670
1.2852631579,42.53407,46.63799
0.732280701751,39.43998,48.92101
0.721754385963,39.58159,52.31198
0.619298245614,42.38566,51.91513
0.692631578951,41.66588,50.83026
1.90175438594,39.85720,50.33720
1.22561403509,31.60163,56.99931
0.839298245614,30.51697,59.33184
1.09122807018,37.61388,55.25406
0.967719298247,37.71990,54.97543
0.804210526316,36.46059,53.54443
1.37578947369,35.51270,54.46503
4.13192982456,39.28615,51.65732
1.54210526316,43.85042,46.70017
1.50947368421,50.32442,41.97333
1.7210526316,55.20817,37.95693
2.64631578949,49.86168,40.84190
1.46526315789,54.44271,36.69766
1.57894736842,62.64080,33.04822
1.68842105263,60.32739,36.32216
1.84561403509,58.79901,34.84685
2.18,59.63631,33.23050
1.59087719298,53.28292,37.93678
1.28350877192,45.62742,44.79799
1.00736842105,49.70442,42.95412
0.859649122807,49.65480,41.53205
0.654736842102,40.59573,49.10582
0.545964912279,38.52547,53.78088
0.656842105263,35.07245,57.76206
0.900701754388,33.96928,57.45541
0.936491228066,34.77602,55.20415
0.85192982456,29.96799,59.62207
0.770526315791,31.10077,57.60940
1.23263157895,33.61780,54.77541
1.03614035088,41.45422,49.45503
1.70175438596,39.68078,51.21804
1.33122807018,42.67184,49.12250
1.06315789473,47.77091,45.42462
1.72350877191,52.12722,40.61465
2.02666666667,54.39945,38.87566
1.7701754386,54.81750,39.65829
1.68280701754,58.98555,36.11306
1.16105263158,61.91441,31.71195
1.3747368421,60.66534,32.89516
1.52912280702,51.85016,40.82015
1.27789473684,48.43655,42.95425
1.23543859649,57.70177,32.85460
0.820701754382,59.14061,32.38836
0.899649122805,50.34445,42.11438
0.917543859649,44.61394,46.79558
0.649122807019,40.02397,51.24900
0.524561403508,39.64546,53.06698
0.46140350877,32.31312,59.86293
0.544210526316,31.64613,60.18639
0.487719298249,28.17517,58.13288
0.557543859649,23.42603,60.55308
1.90701754386,31.15918,58.78220
3.43614035088,35.98219,54.65545
2.59263157895,39.92488,51.87336
1.39649122807,39.57915,51.30811
1.64105263158,47.46623,45.29065
1.79754385966,53.04503,41.10664
5.60421052629,56.53384,37.74530
2.30912280702,59.49381,34.08971
2.7968421053,55.93567,35.15523
1.74245614035,52.94024,37.57262
1.72456140351,60.01683,35.49950
1.95754385965,58.02288,38.27011
1.66140350877,57.49904,35.13668
1.15122807017,58.11226,33.27360
1.05368421052,55.80191,36.74957
0.923859649124,55.15562,37.50631
1.08771929825,52.09461,40.71153
1.18771929825,47.74589,44.48640
0.494736842102,36.55702,52.83266
0.328421052634,32.17654,58.09966
0.423157894736,32.27899,60.61046
1.16456140351,29.04119,62.77405
1.00456140351,28.89437,62.43138
0.500000000003,28.98167,61.56856
1.64140350879,33.06169,56.32144
1.94701754386,35.60201,53.98745
1.54350877191,41.48434,51.53883
2.05403508772,42.71607,49.77996
1.98596491226,50.48456,41.34830
2.04736842105,52.61417,41.98548
7.09859649123,50.33761,44.43263
6.82280701752,48.73547,40.75063
8.43263157897,50.55374,38.19085
11.8789473684,52.56117,35.21755
12.0143859649,48.03301,35.30628
11.4831578947,45.61906,35.68966
11.5154385965,49.64823,34.12988
11.501754386,51.66793,31.33619
11.4028070176,47.96013,32.40771
12.6340350877,46.02231,33.93092
16.3070175439,42.59169,38.08663
16.3256140351,39.78726,39.55020
16.0656140351,31.83054,44.68603
15.9003508772,22.70894,53.03789
16.1214035088,17.52851,56.33799
22.6729824562,19.00216,55.48277
26.5852631579,18.67141,53.63410
35.5989473685,16.28857,53.25753
37.3396491227,14.10115,45.71058
42.3073684211,14.66258,42.91622
44.3989473685,18.68199,40.52938
47.4659649123,17.90948,37.09985
47.5578947368,15.25144,33.88875
47.5645614035,16.80791,29.59586
47.5470175439,19.02325,26.61962
52.6929824561,19.44993,27.40398
56.7150877193,15.26879,28.45189
64.4701754386,12.99047,27.11989
67.7821052632,13.63118,20.10149
69.7185964912,18.08749,13.91643
68.7056140351,19.48141,11.11126
68.8385964912,19.69971,11.54641
68.7154385965,20.30696,9.12141
68.7912280702,20.46828,7.95554
68.6996491228,18.58993,8.90443
68.7119298245,18.73690,8.42125
68.6266666666,16.11553,10.84345
68.5105263158,14.90016,11.70333
68.6143859649,14.07873,14.67357
71.0484210526,11.51993,16.25443
70.9670175438,8.87301,17.54305
73.6361403509,4.06505,20.38585
73.6084210526,5.32644,21.93429
73.5470175438,6.31471,21.74013
73.5694736842,5.74273,18.32995
73.5754385965,5.62301,16.06481
73.6259649123,5.70067,18.53251
73.8603508772,5.08108,20.31860
74.0887719298,5.60914,18.01970
73.7722807018,7.51182,16.46606
73.7543859649,9.50292,16.30967
78.2561403509,9.67313,16.60230
80.2547368421,8.54803,14.65515
84.1168421052,6.51674,12.55708
84.1792982456,6.58435,9.01839
84.1557894737,9.13779,6.94674
84.8501754386,8.62738,6.01960
84.4743859649,6.84010,6.99104
84.316491228,5.60223,8.61167
84.3066666667,9.47151,6.36534
84.3442105263,9.89824,5.20121
84.3614035087,9.25674,4.08366
84.341754386,8.31955,4.61942
84.2775438596,8.78669,4.72337
84.2298245614,9.55169,4.35827
84.1564912281,8.83539,4.53575
84.2249122806,6.62435,7.34652
84.14,4.80436,10.64048
84.1361403509,5.70852,10.00184
84.0814035088,3.74294,11.61686
84.0466666667,2.70961,11.90136
84.0049122807,3.08269,10.70560
84.3585964912,3.10513,10.13928
86.2192982456,2.93999,10.68185
89.2301754386,3.04510,11.62367
89.2452631579,2.85214,10.92831
89.3305263158,1.90278,8.58484
89.2729824562,1.80047,9.03627
89.2642105264,2.27300,9.37334
89.2940350877,2.55812,8.52560
90.0435087719,2.56583,7.45301
90.189122807,1.97464,7.24084
89.3789473685,2.70775,7.64383
89.8280701754,5.33291,5.75179
89.4652631579,5.96425,3.95702
89.4494736842,5.77870,3.76287
89.5607017544,5.66681,4.51560
89.529122807,5.95340,4.56297
89.4652631579,8.21205,0.71564
89.4705263158,7.84770,0.81785
89.478245614,7.90688,3.31171
89.4171929824,8.20471,2.88844
89.4621052631,6.97214,1.78769
89.4954385965,4.48168,4.75873
89.4842105263,4.62935,6.31463
89.3968421053,3.68484,7.57471
89.3487719298,3.30536,6.41552
89.3340350878,1.45544,7.67052
89.32,1.65841,8.83384
89.3,2.04796,9.74337
86.5133333334,2.33646,8.47903
84.2610526316,2.82530,11.01145
84.3003508772,2.37163,12.41950
84.2147368421,2.38212,12.85305
79.3449122808,2.56909,10.38508
79.0414035088,1.57485,15.92670
80.5684210526,2.10374,17.07215
80.7807017544,3.52447,17.00596
83.1435087719,3.61568,15.42964
84.1792982456,3.83217,15.46887
87.2859649123,4.78318,16.47153
85.3736842105,5.12685,15.97300
84.4670175439,5.00665,12.55574
84.3175438597,7.43073,12.79914
83.9696491228,7.61844,13.21874
81.2510526316,8.02681,8.25411
79.1747368421,7.88819,7.84946
78.3554385965,7.46986,10.40963
70.9889473684,5.86762,18.62165
67.7942105263,4.38933,20.96698
63.5971929824,4.45508,31.67205
68.0705263158,4.68946,33.07003
65.8794736842,4.84892,30.21629
66.4707017544,3.50053,34.95200
67.7773684211,3.06520,33.13655
72.8436842105,2.00131,36.37354
75.8459649123,2.33219,36.40996
77.9529824561,2.40268,39.36512
72.7085964912,1.90231,36.88995
67.3126315789,2.38160,39.30004
68.7363157895,2.53312,34.30752
68.5856140351,1.91598,30.15508
71.9414035088,2.11781,29.01297
79.5338596491,2.31019,27.77915
88.5084210527,1.63225,28.04570
90.0952631579,1.59337,25.83840
93.1624561404,1.58850,23.04464
94.1666666667,0.84747,21.76229
95.2407017544,0.78968,16.44151
94.649122807,1.23151,12.58830
94.6245614035,1.30806,7.90537
94.5550877193,2.87794,4.19321
90.8312280702,3.10358,3.21550
89.4736842106,3.77587,5.94848
89.4796491228,3.95127,5.77887
89.4424561403,4.05773,5.44674
89.4905263158,4.10585,5.25339
89.4996491228,4.15614,6.10046
89.552631579,4.13358,7.15651
91.2122807018,3.86422,6.02560
91.1810526316,3.82421,5.43954
94.2417543859,1.38819,8.83758
92.0842105263,1.01586,9.81836
84.9484210526,1.60550,8.57297
84.2189473684,1.70240,9.83985
84.1684210526,0.79089,13.36372
84.1780701754,0.71999,13.25610
84.2071929824,0.95702,12.86739
84.2357894736,0.97567,12.78366
87.2438596491,1.58033,12.98609
87.5473684211,1.67082,12.86479
91.4694736842,0.68306,12.85799
94.3147368421,0.49376,14.44832
94.369122807,1.26398,14.83423
94.3898245614,1.31391,11.07963
95.7273684211,1.47042,8.00038
94.7452631579,1.47820,4.54189
94.5115789474,2.28303,3.63303
94.5519298246,2.38234,4.03455
94.6242105263,3.11013,3.52828
94.5905263158,3.12503,3.98785
94.5992982456,3.71115,2.86442
94.6256140351,3.71047,1.57886
94.6410526316,3.73944,1.21871
94.6961403509,3.81495,1.50760
93.2785964912,4.18059,3.06885
90.5950877193,4.07932,4.34867
89.3498245614,3.22422,4.83252
89.3077192982,3.04701,7.46622
89.307368421,0.50628,10.40536
89.3126315789,0.55372,11.14502
90.1764912281,1.28767,10.95767
92.2175438596,1.29212,10.80688
94.4859649123,1.28799,10.54841
94.5284210526,1.23156,9.88508
94.5312280702,0.79490,7.69107
94.5459649123,0.77712,7.02533
94.5063157895,0.79297,6.48797
94.527368421,0.89107,5.32384
94.5242105263,0.99973,5.22590
94.5249122808,1.70957,4.27781
94.5438596492,1.56176,4.21069
94.5221052631,0.58592,4.67213
94.632631579,0.69707,4.78115
95.0785964913,1.14138,5.12809
94.5929824561,1.48383,4.57992
94.6171929825,2.42893,3.55991
94.5761403509,2.68311,3.36749
94.6403508772,3.70279,2.60154
94.6733333334,3.76845,2.69095
94.6312280702,4.03637,0.99039
94.6259649123,3.97484,1.01027
94.6347368422,3.72511,2.96997
94.5989473684,3.74589,3.13423
94.62,3.88240,1.77341
89.7203508771,3.66158,3.76994
89.4003508772,2.75945,5.60914
89.4785964912,2.40599,7.40270
85.4431578947,0.96757,11.25297
84.2252631579,0.95714,11.66050
84.1975438596,0.88788,13.72441
84.0666666667,1.01526,16.78191
84.0659649123,1.67945,13.58924
84.0596491228,1.55388,12.36479
84.0478947368,0.67632,13.99869
83.726491228,1.48789,14.09410
78.9143859649,3.69970,14.58376
78.94,2.12282,15.31661
78.9463157894,3.16199,17.37692
77.0464912281,6.28304,15.48341
74.2371929825,5.44941,17.18964
76.4149122807,3.54583,15.98268
72.8880701754,4.47413,18.78504
68.0612280702,4.81752,26.34647
64.0464912281,3.94505,29.83185
59.8729824562,3.84166,32.24371
57.4207017544,4.98141,33.65937
53.2905263158,7.46981,34.79828
53.1856140351,7.59340,34.18539
52.7463157895,7.47370,37.05501
51.623508772,6.89207,39.33136
47.9407017544,8.53463,39.70913
44.0666666667,11.72261,37.76144
38.4161403509,13.09379,39.93811
32.0661403509,14.87156,43.72980
31.877368421,16.73126,45.75902
31.8840350877,15.78538,50.20016
31.8461403509,18.12039,48.53683
31.7778947368,18.82572,46.59155
31.7031578947,17.05878,47.02710
30.8705263158,17.05834,47.11583
27.0192982456,21.48731,46.05632
27.0645614035,24.73414,45.58368
26.4845614035,22.81989,51.14812
26.5126315789,22.50460,49.92247
26.4740350877,26.25027,46.93115
22.3098245614,29.19758,45.56513
22.9543859649,31.80740,41.90261
26.3975438596,29.71540,46.84869
30.9350877193,25.08219,49.66894
28.9919298246,22.56509,51.18508
27.1484210526,25.09874,47.11703
29.3343859649,29.67671,42.05300
32.1081871345,31.41150,38.12956
31.9271345029,32.05230,39.15784
32.0997660819,26.85585,38.20575
33.0414035087,26.58573,38.54380
35.2687719298,23.65864,41.71339
33.6659649123,27.57036,36.18178
26.5449122807,26.56880,39.40222
28.5564912281,24.75084,44.54832
29.8294736842,22.87205,44.80986
27.0114035088,21.47667,44.22279
27.3078947368,21.91958,47.06426
35.5540350877,29.88337,39.91783
34.2322807018,30.61943,38.56855
38.3557894737,23.52171,38.87213
35.3575438596,18.40180,39.94892
32.6673684211,30.33403,35.07276
39.8431578947,31.12432,36.43412
43.9543859649,35.13656,28.04983
47.1326315789,33.08179,25.70409
50.4522807018,21.63269,29.33072
56.3112280701,18.76011,27.97911
54.3052631579,22.69358,25.17781
57.3056140351,19.06352,24.53329
64.0828070176,15.54314,19.83021
63.3087719298,16.42573,15.34290
58.1203508772,25.02373,14.68478
60.5294736842,20.23635,18.89707
62.5603508772,20.87131,19.44684
69.3912280702,26.77635,16.46713
74.1199999999,17.48094,18.16782
73.6784210526,10.22233,18.61951
72.6570175438,8.26218,20.71025
74.2189473684,7.87492,23.96351
68.4698245614,8.32915,25.63918
65.9884210527,8.42752,24.52322
66.16,10.25893,24.40266
64.1350877193,12.20562,24.02662
62.9614035088,8.37545,26.07132
62.4905263158,8.80764,25.63511
60.8877192982,14.82261,26.29323
61.64,16.37985,24.94616
62.8449122808,16.13937,20.65207
57.8421052632,15.57515,22.55025
60.0926315789,11.71430,34.40303
65.2284210526,12.78683,35.74704
60.4056140351,17.48763,26.59681
48.0635087719,16.65302,26.50407
55.1515789474,14.15862,30.62589
62.6115789474,15.01645,27.50033
65.9007017545,18.89638,23.59281
63.4371929825,17.82433,26.07519
63.3628070175,11.89383,26.13764
64.1768421053,12.29986,25.17767
60.290877193,15.22780,26.17220
67.3550877192,14.32134,28.23304
68.1803508772,10.84763,24.16126
66.0964912281,10.99911,22.30005
73.3094736842,16.34007,24.16847
69.7150877194,17.16736,23.11950
73.1133333333,17.98316,21.26696
80.5701754386,16.69802,22.34088
